-125.0,-493.5,-95.0,0,0,0
-125.0,-493.5,-85.0,0,0,0
-125.0,-493.5,-75.0,0,0,0
-125.0,-493.5,-65.0,0,0,0
-125.0,-493.5,-55.0,0,0,0
-125.0,-493.5,-45.0,0,0,0
-125.0,-493.5,-35.0,0,0,0
-125.0,-493.5,-25.0,0,0,0
-125.0,-493.5,-15.0,0,0,0
-125.0,-493.5,-5.0,0,0,0
-125.0,-493.5,5.0,0,0,0
-125.0,-493.5,15.0,0,0,0
-125.0,-493.5,25.0,0,0,0
-125.0,-493.5,35.0,0,0,0
-125.0,-493.5,45.0,0,0,0
-125.0,-493.5,55.0,0,0,0
-125.0,-493.5,65.0,0,0,0
-125.0,-493.5,75.0,0,0,0
-125.0,-493.5,85.0,0,0,0
-125.0,-493.5,95.0,0,0,0
-125.0,-493.5,105.0,0,0,0
-125.0,-493.5,115.0,0,0,0
-125.0,-493.5,125.0,0,0,0
-125.0,-483.5,-115.0,0,0,0
-125.0,-483.5,-105.0,0,0,0
-125.0,-483.5,-95.0,0,0,0
-125.0,-483.5,-85.0,0,0,0
-125.0,-483.5,-75.0,0,0,0
-125.0,-483.5,-65.0,0,0,0
-125.0,-483.5,-55.0,0,0,0
-125.0,-483.5,-45.0,0,0,0
-125.0,-483.5,-35.0,0,0,0
-125.0,-483.5,-25.0,0,0,0
-125.0,-483.5,-15.0,0,0,0
-125.0,-483.5,-5.0,0.5192851,2.6450763E-4,1.53353008E8
-125.0,-483.5,5.0,2.2102487,0.0011258317,6.5272102E8
-125.0,-483.5,15.0,3.3046854,0.0016833036,9.7592531E8
-125.0,-483.5,25.0,3.4965484,0.0017810328,1.03258547E9
-125.0,-483.5,35.0,3.2630394,0.0016620904,9.6362656E8
-125.0,-483.5,45.0,3.0088894,0.0015326345,8.8857216E8
-125.0,-483.5,55.0,3.1662557,0.0016127919,9.3504486E8
-125.0,-483.5,65.0,3.1026824,0.0015804096,9.1627059E8
-125.0,-483.5,75.0,3.1363165,0.0015975417,9.2620333E8
-125.0,-483.5,85.0,2.8928545,0.0014735298,8.5430515E8
-125.0,-483.5,95.0,2.9216,0.001488172,8.6279424E8
-125.0,-483.5,105.0,2.7269824,0.0013890398,8.0532058E8
-125.0,-483.5,115.0,2.6001725,0.0013244468,7.6787162E8
-125.0,-483.5,125.0,2.256548,0.001149415,6.6639386E8
-125.0,-473.5,-115.0,0,0,0
-125.0,-473.5,-105.0,0,0,0
-125.0,-473.5,-95.0,0,0,0
-125.0,-473.5,-85.0,0,0,0
-125.0,-473.5,-75.0,0,0,0
-125.0,-473.5,-65.0,0,0,0
-125.0,-473.5,-55.0,0,0,0
-125.0,-473.5,-45.0,0,0,0
-125.0,-473.5,-35.0,0,0,0
-125.0,-473.5,-25.0,0,0,0
-125.0,-473.5,-15.0,0,0,0
-125.0,-473.5,-5.0,0.4734439,2.4115756E-4,1.39815392E8
-125.0,-473.5,5.0,2.0151336,0.0010264461,5.9510048E8
-125.0,-473.5,15.0,3.012956,0.0015347057,8.8977306E8
-125.0,-473.5,25.0,3.187882,0.0016238076,9.4143142E8
-125.0,-473.5,35.0,2.9749863,0.0015153653,8.7856006E8
-125.0,-473.5,45.0,2.7432723,0.0013973373,8.1013126E8
-125.0,-473.5,55.0,2.8867466,0.0014704186,8.5250144E8
-125.0,-473.5,65.0,2.8287852,0.0014408949,8.3538451E8
-125.0,-473.5,75.0,2.8594503,0.0014565148,8.4444038E8
-125.0,-473.5,85.0,2.6374805,0.0013434503,7.7888922E8
-125.0,-473.5,95.0,2.6636884,0.0013567999,7.8662886E8
-125.0,-473.5,105.0,2.486251,0.0012664188,7.3422886E8
-125.0,-473.5,115.0,2.3706357,0.0012075279,7.0008582E8
-125.0,-473.5,125.0,2.0573454,0.0010479476,6.0756627E8
-125.0,-463.5,-115.0,0,0,0
-125.0,-463.5,-105.0,0,0,0
-125.0,-463.5,-95.0,0,0,0
-125.0,-463.5,-85.0,0,0,0
-125.0,-463.5,-75.0,0,0,0
-125.0,-463.5,-65.0,0,0,0
-125.0,-463.5,-55.0,0,0,0
-125.0,-463.5,-45.0,0,0,0
-125.0,-463.5,-35.0,0,0,0
-125.0,-463.5,-25.0,0,0,0
-125.0,-463.5,-15.0,0,0,0
-125.0,-463.5,-5.0,0,0,0
-125.0,-463.5,5.0,0,0,0
-125.0,-463.5,15.0,0,0,0
-125.0,-463.5,25.0,0,0,0
-125.0,-463.5,35.0,0,0,0
-125.0,-463.5,45.0,0,0,0
-125.0,-463.5,55.0,0,0,0
-125.0,-463.5,65.0,0,0,0
-125.0,-463.5,75.0,0,0,0
-125.0,-463.5,85.0,0,0,0
-125.0,-463.5,95.0,0,0,0
-125.0,-463.5,105.0,0,0,0
-125.0,-463.5,115.0,0,0,0
-125.0,-463.5,125.0,0,0,0
-125.0,-453.5,-115.0,0,0,0
-125.0,-453.5,-105.0,0,0,0
-125.0,-453.5,-95.0,0,0,0
-125.0,-453.5,-85.0,0,0,0
-125.0,-453.5,-75.0,0,0,0
-125.0,-453.5,-65.0,0,0,0
-125.0,-453.5,-55.0,0,0,0
-125.0,-453.5,-45.0,0,0,0
-125.0,-453.5,-35.0,0,0,0
-125.0,-453.5,-25.0,0,0,0
-125.0,-453.5,-15.0,0.80444163,4.097575E-4,2.37564208E8
-125.0,-453.5,-5.0,2.8062668,0.0014294247,8.2873446E8
-125.0,-453.5,5.0,3.474089,0.0017695925,1.02595277E9
-125.0,-453.5,15.0,3.4378018,0.001751109,1.01523667E9
-125.0,-453.5,25.0,3.4818254,0.0017735332,1.0282375E9
-125.0,-453.5,35.0,3.4368968,0.001750648,1.01496941E9
-125.0,-453.5,45.0,3.273768,0.0016675552,9.6679488E8
-125.0,-453.5,55.0,3.4192438,0.0017416562,1.00975622E9
-125.0,-453.5,65.0,3.1722028,0.0016158212,9.3680109E8
-125.0,-453.5,75.0,3.0689375,0.0015632211,9.0630528E8
-125.0,-453.5,85.0,3.0212677,0.0015389395,8.9222758E8
-125.0,-453.5,95.0,2.3020642,0.0011725997,6.7983558E8
-125.0,-453.5,105.0,2.3521004,0.0011980867,6.946121E8
-125.0,-453.5,115.0,2.416832,0.0012310588,7.1372832E8
-125.0,-453.5,125.0,1.9820567,0.0010095979,5.8533242E8
-125.0,-443.5,-115.0,0,0,0
-125.0,-443.5,-105.0,0,0,0
-125.0,-443.5,-95.0,0,0,0
-125.0,-443.5,-85.0,0,0,0
-125.0,-443.5,-75.0,0,0,0
-125.0,-443.5,-65.0,0,0,0
-125.0,-443.5,-55.0,0,0,0
-125.0,-443.5,-45.0,0,0,0
-125.0,-443.5,-35.0,0,0,0
-125.0,-443.5,-25.0,0,0,0
-125.0,-443.5,-15.0,0.7334275,3.7358512E-4,2.16592624E8
-125.0,-443.5,-5.0,2.5585365,0.0013032387,7.5557587E8
-125.0,-443.5,5.0,3.167405,0.0016133772,9.3538426E8
-125.0,-443.5,15.0,3.1343212,0.0015965255,9.2561414E8
-125.0,-443.5,25.0,3.1744585,0.0016169702,9.3746726E8
-125.0,-443.5,35.0,3.133496,0.0015961052,9.2537043E8
-125.0,-443.5,45.0,2.984768,0.0015203477,8.8144864E8
-125.0,-443.5,55.0,3.1174016,0.0015879071,9.2061747E8
-125.0,-443.5,65.0,2.8921685,0.0014731805,8.5410266E8
-125.0,-443.5,75.0,2.7980194,0.0014252238,8.2629888E8
-125.0,-443.5,85.0,2.7545576,0.0014030858,8.13464E8
-125.0,-443.5,95.0,2.0988438,0.0010690856,6.1982138E8
-125.0,-443.5,105.0,2.1444628,0.0010923225,6.3329344E8
-125.0,-443.5,115.0,2.20348,0.001122384,6.5072218E8
-125.0,-443.5,125.0,1.8070858,9.2047313E-4,5.33660704E8
-125.0,-433.5,-115.0,0,0,0
-125.0,-433.5,-105.0,0,0,0
-125.0,-433.5,-95.0,0,0,0
-125.0,-433.5,-85.0,0,0,0
-125.0,-433.5,-75.0,0,0,0
-125.0,-433.5,-65.0,0,0,0
-125.0,-433.5,-55.0,0,0,0
-125.0,-433.5,-45.0,0,0,0
-125.0,-433.5,-35.0,0,0,0
-125.0,-433.5,-25.0,0,0,0
-125.0,-433.5,-15.0,0,0,0
-125.0,-433.5,-5.0,0,0,0
-125.0,-433.5,5.0,0,0,0
-125.0,-433.5,15.0,0,0,0
-125.0,-433.5,25.0,0,0,0
-125.0,-433.5,35.0,0,0,0
-125.0,-433.5,45.0,0,0,0
-125.0,-433.5,55.0,0,0,0
-125.0,-433.5,65.0,0,0,0
-125.0,-433.5,75.0,0,0,0
-125.0,-433.5,85.0,0,0,0
-125.0,-433.5,95.0,0,0,0
-125.0,-433.5,105.0,0,0,0
-125.0,-433.5,115.0,0,0,0
-125.0,-433.5,125.0,0,0,0
-125.0,-423.5,-115.0,0,0,0
-125.0,-423.5,-105.0,0,0,0
-125.0,-423.5,-95.0,0,0,0
-125.0,-423.5,-85.0,0,0,0
-125.0,-423.5,-75.0,0,0,0
-125.0,-423.5,-65.0,0,0,0
-125.0,-423.5,-55.0,0,0,0
-125.0,-423.5,-45.0,0,0,0
-125.0,-423.5,-35.0,0,0,0
-125.0,-423.5,-25.0,0.9373582,4.7746106E-4,2.76816544E8
-125.0,-423.5,-15.0,2.6521378,0.0013509162,7.8321779E8
-125.0,-423.5,-5.0,3.3210356,0.001691632,9.8075379E8
-125.0,-423.5,5.0,3.3665783,0.0017148299,9.9420326E8
-125.0,-423.5,15.0,3.4193223,0.001741696,1.00977933E9
-125.0,-423.5,25.0,3.192317,0.0016260666,9.4274112E8
-125.0,-423.5,35.0,3.3423107,0.0017024688,9.8703667E8
-125.0,-423.5,45.0,3.0399218,0.0015484414,8.9773651E8
-125.0,-423.5,55.0,3.171884,0.0016156588,9.3670694E8
-125.0,-423.5,65.0,3.1849658,0.0016223222,9.4057024E8
-125.0,-423.5,75.0,2.955907,0.0015056469,8.7292563E8
-125.0,-423.5,85.0,3.0062308,0.0015312802,8.8778701E8
-125.0,-423.5,95.0,2.6639206,0.001356918,7.8669741E8
-125.0,-423.5,105.0,2.818891,0.0014358552,8.3246259E8
-125.0,-423.5,115.0,2.4838977,0.00126522,7.3353382E8
-125.0,-423.5,125.0,2.1733947,0.0011070594,6.4183744E8
-125.0,-413.5,-115.0,0,0,0
-125.0,-413.5,-105.0,0,0,0
-125.0,-413.5,-95.0,0,0,0
-125.0,-413.5,-85.0,0,0,0
-125.0,-413.5,-75.0,0,0,0
-125.0,-413.5,-65.0,0,0,0
-125.0,-413.5,-55.0,0,0,0
-125.0,-413.5,-45.0,0,0,0
-125.0,-413.5,-35.0,0,0,0
-125.0,-413.5,-25.0,0.85461056,4.35312E-4,2.52379872E8
-125.0,-413.5,-15.0,2.4180136,0.0012316607,7.1407725E8
-125.0,-413.5,-5.0,3.027863,0.0015422989,8.941753E8
-125.0,-413.5,5.0,3.0693853,0.001563449,9.064375E8
-125.0,-413.5,15.0,3.117473,0.0015879435,9.2063853E8
-125.0,-413.5,25.0,2.9105072,0.0014825215,8.5951834E8
-125.0,-413.5,35.0,3.0472598,0.0015521791,8.9990349E8
-125.0,-413.5,45.0,2.7715652,0.0014117488,8.1848653E8
-125.0,-413.5,55.0,2.891878,0.0014730324,8.5401683E8
-125.0,-413.5,65.0,2.903805,0.0014791077,8.5753901E8
-125.0,-413.5,75.0,2.694967,0.0013727321,7.9586592E8
-125.0,-413.5,85.0,2.7408483,0.0013961026,8.0941542E8
-125.0,-413.5,95.0,2.4287562,0.0012371327,7.1724973E8
-125.0,-413.5,105.0,2.5700464,0.0013091015,7.5897491E8
-125.0,-413.5,115.0,2.2646253,0.0011535295,6.6877933E8
-125.0,-413.5,125.0,1.9815328,0.001009331,5.8517766E8
-125.0,-403.5,-115.0,0,0,0
-125.0,-403.5,-105.0,0,0,0
-125.0,-403.5,-95.0,0,0,0
-125.0,-403.5,-85.0,0,0,0
-125.0,-403.5,-75.0,0,0,0
-125.0,-403.5,-65.0,0,0,0
-125.0,-403.5,-55.0,0,0,0
-125.0,-403.5,-45.0,0,0,0
-125.0,-403.5,-35.0,0,0,0
-125.0,-403.5,-25.0,0,0,0
-125.0,-403.5,-15.0,0,0,0
-125.0,-403.5,-5.0,0,0,0
-125.0,-403.5,5.0,0,0,0
-125.0,-403.5,15.0,0,0,0
-125.0,-403.5,25.0,0,0,0
-125.0,-403.5,35.0,0,0,0
-125.0,-403.5,45.0,0,0,0
-125.0,-403.5,55.0,0,0,0
-125.0,-403.5,65.0,0,0,0
-125.0,-403.5,75.0,0,0,0
-125.0,-403.5,85.0,0,0,0
-125.0,-403.5,95.0,0,0,0
-125.0,-403.5,105.0,0,0,0
-125.0,-403.5,115.0,0,0,0
-125.0,-403.5,125.0,0,0,0
-125.0,-393.5,-115.0,0,0,0
-125.0,-393.5,-105.0,0,0,0
-125.0,-393.5,-95.0,0,0,0
-125.0,-393.5,-85.0,0,0,0
-125.0,-393.5,-75.0,0,0,0
-125.0,-393.5,-65.0,0,0,0
-125.0,-393.5,-55.0,0,0,0
-125.0,-393.5,-45.0,0,0,0
-125.0,-393.5,-35.0,1.3227979,6.73792E-4,3.90642912E8
-125.0,-393.5,-25.0,3.0715938,0.001564574,9.0708966E8
-125.0,-393.5,-15.0,3.4693794,0.0017671937,1.02456205E9
-125.0,-393.5,-5.0,3.4401467,0.0017523034,1.01592915E9
-125.0,-393.5,5.0,3.2946107,0.0016781719,9.7295014E8
-125.0,-393.5,15.0,3.3453143,0.0017039988,9.8792365E8
-125.0,-393.5,25.0,3.3030024,0.0016824463,9.7542829E8
-125.0,-393.5,35.0,3.2570899,0.00165906,9.6186963E8
-125.0,-393.5,45.0,3.1303766,0.0015945162,9.2444915E8
-125.0,-393.5,55.0,3.394628,0.0017291176,1.00248678E9
-125.0,-393.5,65.0,2.9277136,0.001491286,8.6459962E8
-125.0,-393.5,75.0,2.9588397,0.0015071406,8.7379162E8
-125.0,-393.5,85.0,3.1804605,0.0016200274,9.3923974E8
-125.0,-393.5,95.0,2.7489467,0.0014002277,8.1180698E8
-125.0,-393.5,105.0,2.6306462,0.0013399691,7.7687098E8
-125.0,-393.5,115.0,2.8697944,0.0014617838,8.4749517E8
-125.0,-393.5,125.0,2.173095,0.0011069068,6.4174899E8
-125.0,-383.5,-115.0,0,0,0
-125.0,-383.5,-105.0,0,0,0
-125.0,-383.5,-95.0,0,0,0
-125.0,-383.5,-85.0,0,0,0
-125.0,-383.5,-75.0,0,0,0
-125.0,-383.5,-65.0,0,0,0
-125.0,-383.5,-55.0,0,0,0
-125.0,-383.5,-45.0,0,0,0
-125.0,-383.5,-35.0,1.2060246,6.143113E-4,3.56157952E8
-125.0,-383.5,-25.0,2.800441,0.0014264573,8.2701408E8
-125.0,-383.5,-15.0,3.1631114,0.0016111903,9.3411629E8
-125.0,-383.5,-5.0,3.136459,0.0015976145,9.2624544E8
-125.0,-383.5,5.0,3.0037708,0.0015300271,8.8706054E8
-125.0,-383.5,15.0,3.0499983,0.001553574,9.0071226E8
-125.0,-383.5,25.0,3.0114214,0.0015339243,8.8931994E8
-125.0,-383.5,35.0,2.969562,0.0015126023,8.7695814E8
-125.0,-383.5,45.0,2.8540347,0.0014537562,8.4284115E8
-125.0,-383.5,55.0,3.0949588,0.0015764754,9.1398976E8
-125.0,-383.5,65.0,2.6692624,0.001359639,7.8827494E8
-125.0,-383.5,75.0,2.6976407,0.0013740939,7.9665549E8
-125.0,-383.5,85.0,2.8996973,0.0014770153,8.5632602E8
-125.0,-383.5,95.0,2.5062766,0.001276619,7.4014266E8
-125.0,-383.5,105.0,2.3984194,0.00122168,7.0829075E8
-125.0,-383.5,115.0,2.616456,0.0013327411,7.7268045E8
-125.0,-383.5,125.0,1.9812596,0.0010091919,5.8509696E8
-125.0,-373.5,-115.0,0,0,0
-125.0,-373.5,-105.0,0,0,0
-125.0,-373.5,-95.0,0,0,0
-125.0,-373.5,-85.0,0,0,0
-125.0,-373.5,-75.0,0,0,0
-125.0,-373.5,-65.0,0,0,0
-125.0,-373.5,-55.0,0,0,0
-125.0,-373.5,-45.0,0,0,0
-125.0,-373.5,-35.0,0,0,0
-125.0,-373.5,-25.0,0,0,0
-125.0,-373.5,-15.0,0,0,0
-125.0,-373.5,-5.0,0,0,0
-125.0,-373.5,5.0,0,0,0
-125.0,-373.5,15.0,0,0,0
-125.0,-373.5,25.0,0,0,0
-125.0,-373.5,35.0,0,0,0
-125.0,-373.5,45.0,0,0,0
-125.0,-373.5,55.0,0,0,0
-125.0,-373.5,65.0,0,0,0
-125.0,-373.5,75.0,0,0,0
-125.0,-373.5,85.0,0,0,0
-125.0,-373.5,95.0,0,0,0
-125.0,-373.5,105.0,0,0,0
-125.0,-373.5,115.0,0,0,0
-125.0,-373.5,125.0,0,0,0
-125.0,-363.5,-115.0,0,0,0
-125.0,-363.5,-105.0,0,0,0
-125.0,-363.5,-95.0,0,0,0
-125.0,-363.5,-85.0,0,0,0
-125.0,-363.5,-75.0,0,0,0
-125.0,-363.5,-65.0,0,0,0
-125.0,-363.5,-55.0,0,0,0
-125.0,-363.5,-45.0,1.4516554,7.39428E-4,4.28696544E8
-125.0,-363.5,-35.0,3.187475,0.0016236004,9.413113E8
-125.0,-363.5,-25.0,3.2561703,0.0016585916,9.6159808E8
-125.0,-363.5,-15.0,3.3204792,0.0016913486,9.805895E8
-125.0,-363.5,-5.0,3.3728795,0.0017180396,9.9606413E8
-125.0,-363.5,5.0,3.371135,0.001717151,9.9554893E8
-125.0,-363.5,15.0,3.6645868,0.0018666262,1.08220979E9
-125.0,-363.5,25.0,3.4524124,0.0017585512,1.01955142E9
-125.0,-363.5,35.0,3.6977503,0.0018835186,1.09200358E9
-125.0,-363.5,45.0,3.359402,0.0017111746,9.9208397E8
-125.0,-363.5,55.0,2.9141345,0.0014843692,8.605895E8
-125.0,-363.5,65.0,2.878734,0.0014663374,8.5013523E8
-125.0,-363.5,75.0,2.9715369,0.0015136081,8.7754131E8
-125.0,-363.5,85.0,2.643143,0.0013463346,7.8056147E8
-125.0,-363.5,95.0,2.4647815,0.0012554828,7.2788851E8
-125.0,-363.5,105.0,2.4189649,0.0012321452,7.1435821E8
-125.0,-363.5,115.0,2.1067843,0.0010731302,6.2216634E8
-125.0,-363.5,125.0,2.2843685,0.0011635862,6.7460979E8
-125.0,-353.5,-115.0,0,0,0
-125.0,-353.5,-105.0,0,0,0
-125.0,-353.5,-95.0,0,0,0
-125.0,-353.5,-85.0,0,0,0
-125.0,-353.5,-75.0,0,0,0
-125.0,-353.5,-65.0,0,0,0
-125.0,-353.5,-55.0,0,0,0
-125.0,-353.5,-45.0,1.3235068,6.7415315E-4,3.90852288E8
-125.0,-353.5,-35.0,2.9060926,0.001480273,8.5821466E8
-125.0,-353.5,-25.0,2.9687238,0.0015121753,8.7671059E8
-125.0,-353.5,-15.0,3.0273557,0.0015420405,8.9402547E8
-125.0,-353.5,-5.0,3.0751302,0.0015663754,9.0813408E8
-125.0,-353.5,5.0,3.0735397,0.0015655652,9.0766438E8
-125.0,-353.5,15.0,3.3410861,0.0017018451,9.8667501E8
-125.0,-353.5,25.0,3.1476421,0.0016033107,9.2954797E8
-125.0,-353.5,35.0,3.3713222,0.0017172464,9.9560422E8
-125.0,-353.5,45.0,3.0628424,0.0015601164,9.0450528E8
-125.0,-353.5,55.0,2.656882,0.0013533328,7.8461882E8
-125.0,-353.5,65.0,2.6246066,0.0013368928,7.7508742E8
-125.0,-353.5,75.0,2.709217,0.0013799906,8.0007418E8
-125.0,-353.5,85.0,2.409813,0.0012274835,7.1165549E8
-125.0,-353.5,95.0,2.2471967,0.0011446519,6.6363238E8
-125.0,-353.5,105.0,2.2054248,0.0011233746,6.5129645E8
-125.0,-353.5,115.0,1.9208026,9.78397E-4,5.6724307E8
-125.0,-353.5,125.0,2.0827103,0.0010608677,6.1505696E8
-125.0,-343.5,-115.0,0,0,0
-125.0,-343.5,-105.0,0,0,0
-125.0,-343.5,-95.0,0,0,0
-125.0,-343.5,-85.0,0,0,0
-125.0,-343.5,-75.0,0,0,0
-125.0,-343.5,-65.0,0,0,0
-125.0,-343.5,-55.0,0,0,0
-125.0,-343.5,-45.0,0,0,0
-125.0,-343.5,-35.0,0,0,0
-125.0,-343.5,-25.0,0,0,0
-125.0,-343.5,-15.0,0,0,0
-125.0,-343.5,-5.0,0,0,0
-125.0,-343.5,5.0,0,0,0
-125.0,-343.5,15.0,0,0,0
-125.0,-343.5,25.0,0,0,0
-125.0,-343.5,35.0,0,0,0
-125.0,-343.5,45.0,0,0,0
-125.0,-343.5,55.0,0,0,0
-125.0,-343.5,65.0,0,0,0
-125.0,-343.5,75.0,0,0,0
-125.0,-343.5,85.0,0,0,0
-125.0,-343.5,95.0,0,0,0
-125.0,-343.5,105.0,0,0,0
-125.0,-343.5,115.0,0,0,0
-125.0,-343.5,125.0,0,0,0
-125.0,-333.5,-115.0,0,0,0
-125.0,-333.5,-105.0,0,0,0
-125.0,-333.5,-95.0,0,0,0
-125.0,-333.5,-85.0,0,0,0
-125.0,-333.5,-75.0,0,0,0
-125.0,-333.5,-65.0,0.32131183,1.6366622E-4,9.4888408E7
-125.0,-333.5,-55.0,1.6627547,8.4695534E-4,4.91037472E8
-125.0,-333.5,-45.0,3.3150423,0.0016885791,9.7898387E8
-125.0,-333.5,-35.0,3.508931,0.00178734,1.03624224E9
-125.0,-333.5,-25.0,3.2210715,0.0016407133,9.5123277E8
-125.0,-333.5,-15.0,3.1585262,0.0016088547,9.3276224E8
-125.0,-333.5,-5.0,3.3625703,0.0017127884,9.9301965E8
-125.0,-333.5,5.0,3.590619,0.0018289494,1.06036602E9
-125.0,-333.5,15.0,3.7206042,0.0018951597,1.09875264E9
-125.0,-333.5,25.0,3.462595,0.0017637379,1.02255846E9
-125.0,-333.5,35.0,4.0352635,0.0020554375,1.19167654E9
-125.0,-333.5,45.0,3.0397449,0.0015483511,8.9768422E8
-125.0,-333.5,55.0,3.1686132,0.0016139927,9.3574106E8
-125.0,-333.5,65.0,3.0487761,0.0015529515,9.003513E8
-125.0,-333.5,75.0,2.8773017,0.0014656077,8.4971219E8
-125.0,-333.5,85.0,2.555534,0.0013017092,7.5468915E8
-125.0,-333.5,95.0,2.4936934,0.0012702096,7.3642662E8
-125.0,-333.5,105.0,2.3291328,0.0011863876,6.8782938E8
-125.0,-333.5,115.0,2.2039967,0.0011226472,6.5087469E8
-125.0,-333.5,125.0,2.1644237,0.0011024899,6.3918816E8
-125.0,-323.5,-115.0,0,0,0
-125.0,-323.5,-105.0,0,0,0
-125.0,-323.5,-95.0,0,0,0
-125.0,-323.5,-85.0,0,0,0
-125.0,-323.5,-75.0,0,0,0
-125.0,-323.5,-65.0,0.29294723,1.4921818E-4,8.6511896E7
-125.0,-323.5,-55.0,1.5159708,7.7218824E-4,4.47689888E8
-125.0,-323.5,-45.0,3.0223987,0.0015395156,8.925616E8
-125.0,-323.5,-35.0,3.1991713,0.0016295582,9.4476538E8
-125.0,-323.5,-25.0,2.9367232,0.0014958752,8.6726035E8
-125.0,-323.5,-15.0,2.8796995,0.0014668291,8.5042029E8
-125.0,-323.5,-5.0,3.065731,0.0015615878,9.0535834E8
-125.0,-323.5,5.0,3.2736483,0.0016674943,9.6675955E8
-125.0,-323.5,15.0,3.3921585,0.0017278597,1.0017575E9
-125.0,-323.5,25.0,3.1569257,0.0016080395,9.322896E8
-125.0,-323.5,35.0,3.6790407,0.0018739887,1.08647834E9
-125.0,-323.5,45.0,2.7714038,0.0014116666,8.1843891E8
-125.0,-323.5,55.0,2.888896,0.0014715135,8.5313619E8
-125.0,-323.5,65.0,2.7796378,0.0014158608,8.2087053E8
-125.0,-323.5,75.0,2.6233008,0.0013362275,7.7470176E8
-125.0,-323.5,85.0,2.3299377,0.0011867976,6.8806707E8
-125.0,-323.5,95.0,2.2735562,0.0011580787,6.7141677E8
-125.0,-323.5,105.0,2.1235228,0.0010816563,6.271095E8
-125.0,-323.5,115.0,2.0094335,0.0010235427,5.9341715E8
-125.0,-323.5,125.0,1.9733537,0.0010051648,5.8276224E8
-125.0,-313.5,-115.0,0,0,0
-125.0,-313.5,-105.0,0,0,0
-125.0,-313.5,-95.0,0,0,0
-125.0,-313.5,-85.0,0,0,0
-125.0,-313.5,-75.0,0,0,0
-125.0,-313.5,-65.0,0,0,0
-125.0,-313.5,-55.0,0,0,0
-125.0,-313.5,-45.0,0,0,0
-125.0,-313.5,-35.0,0,0,0
-125.0,-313.5,-25.0,0,0,0
-125.0,-313.5,-15.0,0,0,0
-125.0,-313.5,-5.0,0,0,0
-125.0,-313.5,5.0,0,0,0
-125.0,-313.5,15.0,0,0,0
-125.0,-313.5,25.0,0,0,0
-125.0,-313.5,35.0,0,0,0
-125.0,-313.5,45.0,0,0,0
-125.0,-313.5,55.0,0,0,0
-125.0,-313.5,65.0,0,0,0
-125.0,-313.5,75.0,0,0,0
-125.0,-313.5,85.0,0,0,0
-125.0,-313.5,95.0,0,0,0
-125.0,-313.5,105.0,0,0,0
-125.0,-313.5,115.0,0,0,0
-125.0,-313.5,125.0,0,0,0
-125.0,-303.5,-115.0,0,0,0
-125.0,-303.5,-105.0,0,0,0
-125.0,-303.5,-95.0,0,0,0
-125.0,-303.5,-85.0,0,0,0
-125.0,-303.5,-75.0,0.7982652,4.066114E-4,2.35740208E8
-125.0,-303.5,-65.0,2.2237103,0.0011326886,6.5669645E8
-125.0,-303.5,-55.0,3.2477472,0.0016543011,9.5911059E8
-125.0,-303.5,-45.0,3.0779843,0.0015678292,9.089769E8
-125.0,-303.5,-35.0,3.2671752,0.0016641972,9.6484794E8
-125.0,-303.5,-25.0,3.1447728,0.0016018491,9.2870061E8
-125.0,-303.5,-15.0,3.2670488,0.0016641328,9.6481062E8
-125.0,-303.5,-5.0,3.5043173,0.00178499,1.03487974E9
-125.0,-303.5,5.0,3.4425414,0.0017535231,1.01663629E9
-125.0,-303.5,15.0,3.5795023,0.0018232869,1.05708307E9
-125.0,-303.5,25.0,3.5890887,0.0018281698,1.05991405E9
-125.0,-303.5,35.0,3.5136623,0.00178975,1.03763942E9
-125.0,-303.5,45.0,3.2467577,0.0016537971,9.5881837E8
-125.0,-303.5,55.0,3.3234527,0.0016928631,9.8146758E8
-125.0,-303.5,65.0,3.3002756,0.0016810575,9.7462304E8
-125.0,-303.5,75.0,2.8036275,0.0014280804,8.2795507E8
-125.0,-303.5,85.0,2.6395023,0.0013444801,7.7948634E8
-125.0,-303.5,95.0,2.7577422,0.0014047078,8.1440442E8
-125.0,-303.5,105.0,2.6249957,0.0013370909,7.752023E8
-125.0,-303.5,115.0,2.3927486,0.0012187915,7.0661606E8
-125.0,-303.5,125.0,2.2718644,0.0011572168,6.7091712E8
-125.0,-293.5,-115.0,0,0,0
-125.0,-293.5,-105.0,0,0,0
-125.0,-293.5,-95.0,0,0,0
-125.0,-293.5,-85.0,0,0,0
-125.0,-293.5,-75.0,0.7277963,3.7071676E-4,2.14929648E8
-125.0,-293.5,-65.0,2.0274067,0.0010326977,5.9872493E8
-125.0,-293.5,-55.0,2.961044,0.0015082635,8.7444269E8
-125.0,-293.5,-45.0,2.8062675,0.0014294251,8.2873472E8
-125.0,-293.5,-35.0,2.9787571,0.001517286,8.796736E8
-125.0,-293.5,-25.0,2.86716,0.0014604419,8.4671725E8
-125.0,-293.5,-15.0,2.978642,0.0015172273,8.7963955E8
-125.0,-293.5,-5.0,3.194965,0.0016274154,9.4352314E8
-125.0,-293.5,5.0,3.1386423,0.0015987265,9.2689018E8
-125.0,-293.5,15.0,3.2635128,0.0016623317,9.6376646E8
-125.0,-293.5,25.0,3.272253,0.0016667836,9.6634752E8
-125.0,-293.5,35.0,3.203485,0.0016317553,9.4603923E8
-125.0,-293.5,45.0,2.9601421,0.001507804,8.7417626E8
-125.0,-293.5,55.0,3.0300665,0.0015434214,8.9482605E8
-125.0,-293.5,65.0,3.0089355,0.0015326579,8.8858573E8
-125.0,-293.5,75.0,2.5561304,0.001302013,7.5486528E8
-125.0,-293.5,85.0,2.4064937,0.0012257928,7.106752E8
-125.0,-293.5,95.0,2.5142956,0.0012807037,7.4251078E8
-125.0,-293.5,105.0,2.3932676,0.0012190558,7.0676934E8
-125.0,-293.5,115.0,2.1815226,0.0011111996,6.4423782E8
-125.0,-293.5,125.0,2.0713098,0.0010550607,6.1169024E8
-125.0,-283.5,-115.0,0,0,0
-125.0,-283.5,-105.0,0,0,0
-125.0,-283.5,-95.0,0,0,0
-125.0,-283.5,-85.0,0,0,0
-125.0,-283.5,-75.0,0,0,0
-125.0,-283.5,-65.0,0,0,0
-125.0,-283.5,-55.0,0,0,0
-125.0,-283.5,-45.0,0,0,0
-125.0,-283.5,-35.0,0,0,0
-125.0,-283.5,-25.0,0,0,0
-125.0,-283.5,-15.0,0,0,0
-125.0,-283.5,-5.0,0,0,0
-125.0,-283.5,5.0,0,0,0
-125.0,-283.5,15.0,0,0,0
-125.0,-283.5,25.0,0,0,0
-125.0,-283.5,35.0,0,0,0
-125.0,-283.5,45.0,0,0,0
-125.0,-283.5,55.0,0,0,0
-125.0,-283.5,65.0,0,0,0
-125.0,-283.5,75.0,0,0,0
-125.0,-283.5,85.0,0,0,0
-125.0,-283.5,95.0,0,0,0
-125.0,-283.5,105.0,0,0,0
-125.0,-283.5,115.0,0,0,0
-125.0,-283.5,125.0,0,0,0
-125.0,-273.5,-115.0,0,0,0
-125.0,-273.5,-105.0,0,0,0
-125.0,-273.5,-95.0,0.11786242,6.003544E-5,3.4806616E7
-125.0,-273.5,-85.0,1.3399284,6.825177E-4,3.95701824E8
-125.0,-273.5,-75.0,2.735905,0.0013935847,8.0795552E8
-125.0,-273.5,-65.0,3.1387644,0.0015987887,9.2692627E8
-125.0,-273.5,-55.0,3.0823617,0.0015700589,9.1026963E8
-125.0,-273.5,-45.0,3.1557407,0.001607436,9.3193965E8
-125.0,-273.5,-35.0,3.5855908,0.0018263882,1.05888109E9
-125.0,-273.5,-25.0,3.272863,0.0016670943,9.6652768E8
-125.0,-273.5,-15.0,3.7313235,0.0019006197,1.10191821E9
-125.0,-273.5,-5.0,3.5258315,0.0017959486,1.04123322E9
-125.0,-273.5,5.0,3.4469094,0.0017557482,1.01792627E9
-125.0,-273.5,15.0,3.5894487,0.0018283533,1.06002035E9
-125.0,-273.5,25.0,3.5240054,0.0017950184,1.04069395E9
-125.0,-273.5,35.0,3.3328018,0.0016976253,9.8422854E8
-125.0,-273.5,45.0,3.3880014,0.0017257424,1.00052986E9
-125.0,-273.5,55.0,3.1684248,0.0016138968,9.3568544E8
-125.0,-273.5,65.0,3.1185522,0.0015884932,9.2095725E8
-125.0,-273.5,75.0,2.6269665,0.0013380948,7.7578432E8
-125.0,-273.5,85.0,3.2577827,0.001659413,9.6207424E8
-125.0,-273.5,95.0,2.8635623,0.0014586094,8.4565478E8
-125.0,-273.5,105.0,2.7134647,0.0013821543,8.0132858E8
-125.0,-273.5,115.0,2.6556044,0.001352682,7.8424154E8
-125.0,-273.5,125.0,1.9664003,0.0010016229,5.8070874E8
-125.0,-263.5,-115.0,0,0,0
-125.0,-263.5,-105.0,0,0,0
-125.0,-263.5,-95.0,0.10745782,5.473566E-5,3.1733974E7
-125.0,-263.5,-85.0,1.2216429,6.222668E-4,3.60770272E8
-125.0,-263.5,-75.0,2.4943862,0.0012705625,7.3663123E8
-125.0,-263.5,-65.0,2.8616822,0.0014576516,8.4509952E8
-125.0,-263.5,-55.0,2.8102586,0.001431458,8.2991334E8
-125.0,-263.5,-45.0,2.8771598,0.0014655355,8.4967034E8
-125.0,-263.5,-35.0,3.269064,0.0016651592,9.6540576E8
-125.0,-263.5,-25.0,2.983943,0.0015199274,8.8120499E8
-125.0,-263.5,-15.0,3.4019315,0.0017328378,1.00464358E9
-125.0,-263.5,-5.0,3.2145798,0.0016374068,9.4931571E8
-125.0,-263.5,5.0,3.1426249,0.0016007551,9.280663E8
-125.0,-263.5,15.0,3.272581,0.0016669508,9.6644442E8
-125.0,-263.5,25.0,3.2129152,0.0016365587,9.4882413E8
-125.0,-263.5,35.0,3.0385904,0.0015477631,8.973433E8
-125.0,-263.5,45.0,3.0889173,0.0015733981,9.1220563E8
-125.0,-263.5,55.0,2.8887243,0.001471426,8.530855E8
-125.0,-263.5,65.0,2.8432543,0.001448265,8.3965747E8
-125.0,-263.5,75.0,2.3950646,0.0012199711,7.0730003E8
-125.0,-263.5,85.0,2.9701939,0.0015129241,8.7714477E8
-125.0,-263.5,95.0,2.6107743,0.001329847,7.710025E8
-125.0,-263.5,105.0,2.4739268,0.0012601411,7.3058931E8
-125.0,-263.5,115.0,2.4211743,0.0012332706,7.1501062E8
-125.0,-263.5,125.0,1.7928113,9.132022E-4,5.29445248E8
-125.0,-253.5,-115.0,0,0,0
-125.0,-253.5,-105.0,0,0,0
-125.0,-253.5,-95.0,0,0,0
-125.0,-253.5,-85.0,0,0,0
-125.0,-253.5,-75.0,0,0,0
-125.0,-253.5,-65.0,0,0,0
-125.0,-253.5,-55.0,0,0,0
-125.0,-253.5,-45.0,0,0,0
-125.0,-253.5,-35.0,0,0,0
-125.0,-253.5,-25.0,0,0,0
-125.0,-253.5,-15.0,0,0,0
-125.0,-253.5,-5.0,0,0,0
-125.0,-253.5,5.0,0,0,0
-125.0,-253.5,15.0,0,0,0
-125.0,-253.5,25.0,0,0,0
-125.0,-253.5,35.0,0,0,0
-125.0,-253.5,45.0,0,0,0
-125.0,-253.5,55.0,0,0,0
-125.0,-253.5,65.0,0,0,0
-125.0,-253.5,75.0,0,0,0
-125.0,-253.5,85.0,0,0,0
-125.0,-253.5,95.0,0,0,0
-125.0,-253.5,105.0,0,0,0
-125.0,-253.5,115.0,0,0,0
-125.0,-253.5,125.0,0,0,0
-125.0,-243.5,-115.0,0,0,0
-125.0,-243.5,-105.0,0.9086179,4.6282163E-4,2.68329088E8
-125.0,-243.5,-95.0,2.0341034,0.0010361088,6.0070259E8
-125.0,-243.5,-85.0,3.086261,0.001572045,9.1142112E8
-125.0,-243.5,-75.0,3.0780683,0.001567872,9.0900173E8
-125.0,-243.5,-65.0,3.1870868,0.0016234026,9.4119661E8
-125.0,-243.5,-55.0,2.9232857,0.0014890307,8.6329203E8
-125.0,-243.5,-45.0,2.8852897,0.0014696766,8.5207123E8
-125.0,-243.5,-35.0,3.1133277,0.0015858321,9.194144E8
-125.0,-243.5,-25.0,3.3569813,0.0017099415,9.9136909E8
-125.0,-243.5,-15.0,3.5982683,0.0018328456,1.06262496E9
-125.0,-243.5,-5.0,3.365077,0.0017140652,9.9375987E8
-125.0,-243.5,5.0,3.3451087,0.001703894,9.8786291E8
-125.0,-243.5,15.0,3.622131,0.0018450005,1.069672E9
-125.0,-243.5,25.0,3.5192852,0.0017926141,1.03930003E9
-125.0,-243.5,35.0,3.4281642,0.0017462,1.01239059E9
-125.0,-243.5,45.0,3.634865,0.001851487,1.07343258E9
-125.0,-243.5,55.0,3.5695941,0.0018182399,1.05415699E9
-125.0,-243.5,65.0,3.413783,0.0017388746,1.00814355E9
-125.0,-243.5,75.0,3.033787,0.0015453165,8.959248E8
-125.0,-243.5,85.0,2.7975245,0.0014249716,8.261527E8
-125.0,-243.5,95.0,2.491067,0.0012688718,7.3565101E8
-125.0,-243.5,105.0,2.438019,0.0012418509,7.1998522E8
-125.0,-243.5,115.0,2.083433,0.0010612357,6.1527034E8
-125.0,-243.5,125.0,1.1502407,5.8589666E-4,3.39684064E8
-125.0,-233.5,-115.0,0,0,0
-125.0,-233.5,-105.0,0.8284074,4.2196488E-4,2.44641664E8
-125.0,-233.5,-95.0,1.8545378,9.4464375E-4,5.4767405E8
-125.0,-233.5,-85.0,2.8138134,0.0014332689,8.309632E8
-125.0,-233.5,-75.0,2.806344,0.0014294642,8.2875731E8
-125.0,-233.5,-65.0,2.9057388,0.0014800926,8.5811014E8
-125.0,-233.5,-55.0,2.6652255,0.0013575827,7.8708282E8
-125.0,-233.5,-45.0,2.6305835,0.0013399372,7.7685248E8
-125.0,-233.5,-35.0,2.838491,0.0014458388,8.3825082E8
-125.0,-233.5,-25.0,3.0606353,0.0015589922,9.0385357E8
-125.0,-233.5,-15.0,3.2806222,0.0016710466,9.6881907E8
-125.0,-233.5,-5.0,3.0680163,0.0015627518,9.0603328E8
-125.0,-233.5,5.0,3.049811,0.0015534785,9.006569E8
-125.0,-233.5,15.0,3.3023784,0.0016821285,9.7524403E8
-125.0,-233.5,25.0,3.2086115,0.0016343667,9.4755322E8
-125.0,-233.5,35.0,3.1255345,0.0015920498,9.2301926E8
-125.0,-233.5,45.0,3.3139884,0.0016880423,9.7867264E8
-125.0,-233.5,55.0,3.2544794,0.0016577302,9.6109869E8
-125.0,-233.5,65.0,3.1124227,0.0015853711,9.1914714E8
-125.0,-233.5,75.0,2.765972,0.0014088998,8.1683482E8
-125.0,-233.5,85.0,2.550566,0.0012991787,7.5322202E8
-125.0,-233.5,95.0,2.2711618,0.001156859,6.7070963E8
-125.0,-233.5,105.0,2.222797,0.0011322234,6.5642669E8
-125.0,-233.5,115.0,1.8995126,9.675525E-4,5.6095578E8
-125.0,-233.5,125.0,1.0487002,5.341752E-4,3.096976E8
-125.0,-223.5,-115.0,0,0,0
-125.0,-223.5,-105.0,0,0,0
-125.0,-223.5,-95.0,0,0,0
-125.0,-223.5,-85.0,0,0,0
-125.0,-223.5,-75.0,0,0,0
-125.0,-223.5,-65.0,0,0,0
-125.0,-223.5,-55.0,0,0,0
-125.0,-223.5,-45.0,0,0,0
-125.0,-223.5,-35.0,0,0,0
-125.0,-223.5,-25.0,0,0,0
-125.0,-223.5,-15.0,0,0,0
-125.0,-223.5,-5.0,0,0,0
-125.0,-223.5,5.0,0,0,0
-125.0,-223.5,15.0,0,0,0
-125.0,-223.5,25.0,0,0,0
-125.0,-223.5,35.0,0,0,0
-125.0,-223.5,45.0,0,0,0
-125.0,-223.5,55.0,0,0,0
-125.0,-223.5,65.0,0,0,0
-125.0,-223.5,75.0,0,0,0
-125.0,-223.5,85.0,0,0,0
-125.0,-223.5,95.0,0,0,0
-125.0,-223.5,105.0,0,0,0
-125.0,-223.5,115.0,0,0,0
-125.0,-223.5,125.0,0,0,0
-125.0,-213.5,-115.0,2.0442235,0.0010412638,6.0369126E8
-125.0,-213.5,-105.0,2.6068063,0.0013278258,7.6983072E8
-125.0,-213.5,-95.0,2.587121,0.0013177987,7.6401734E8
-125.0,-213.5,-85.0,2.7171767,0.001384045,8.0242477E8
-125.0,-213.5,-75.0,2.722916,0.0013869684,8.0411968E8
-125.0,-213.5,-65.0,3.2143161,0.0016372723,9.4923782E8
-125.0,-213.5,-55.0,3.0858579,0.0015718398,9.1130214E8
-125.0,-213.5,-45.0,3.1209042,0.0015896912,9.2165184E8
-125.0,-213.5,-35.0,3.3890867,0.0017262951,1.0008503E9
-125.0,-213.5,-25.0,3.2920785,0.001676882,9.7220224E8
-125.0,-213.5,-15.0,3.2799108,0.0016706842,9.6860896E8
-125.0,-213.5,-5.0,3.2179253,0.0016391107,9.5030368E8
-125.0,-213.5,5.0,3.3685615,0.0017158401,9.9478893E8
-125.0,-213.5,15.0,3.225391,0.0016429136,9.5250842E8
-125.0,-213.5,25.0,3.4244058,0.0017442856,1.01128064E9
-125.0,-213.5,35.0,3.347203,0.0017049608,9.8848141E8
-125.0,-213.5,45.0,3.1550612,0.0016070898,9.3173901E8
-125.0,-213.5,55.0,3.1537015,0.0016063971,9.3133741E8
-125.0,-213.5,65.0,3.0065365,0.0015314359,8.8787731E8
-125.0,-213.5,75.0,2.7661042,0.0014089672,8.1687386E8
-125.0,-213.5,85.0,2.6344736,0.0013419186,7.7800122E8
-125.0,-213.5,95.0,2.3700519,0.0012072305,6.9991334E8
-125.0,-213.5,105.0,1.3085324,6.6652556E-4,3.8643008E8
-125.0,-213.5,115.0,0.22945794,1.1687872E-4,6.776252E7
-125.0,-213.5,125.0,0,0,0
-125.0,-203.5,-115.0,1.8637648,9.493436E-4,5.5039891E8
-125.0,-203.5,-105.0,2.376684,0.0012106086,7.01872E8
-125.0,-203.5,-95.0,2.3587365,0.0012014668,6.9657178E8
-125.0,-203.5,-85.0,2.4773111,0.001261865,7.3158874E8
-125.0,-203.5,-75.0,2.4825437,0.0012645304,7.3313402E8
-125.0,-203.5,-65.0,2.9305642,0.001492738,8.6544147E8
-125.0,-203.5,-55.0,2.8134463,0.0014330817,8.3085466E8
-125.0,-203.5,-45.0,2.8453984,0.0014493573,8.4029069E8
-125.0,-203.5,-35.0,3.0899067,0.0015739021,9.1249779E8
-125.0,-203.5,-25.0,3.001462,0.0015288511,8.8637869E8
-125.0,-203.5,-15.0,2.9903684,0.0015232004,8.8310259E8
-125.0,-203.5,-5.0,2.933855,0.0014944142,8.6641331E8
-125.0,-203.5,5.0,3.0711932,0.0015643701,9.0697146E8
-125.0,-203.5,15.0,2.9406617,0.0014978813,8.6842336E8
-125.0,-203.5,25.0,3.122108,0.0015903044,9.2200736E8
-125.0,-203.5,35.0,3.0517204,0.0015544512,9.0122074E8
-125.0,-203.5,45.0,2.8765404,0.00146522,8.4948742E8
-125.0,-203.5,55.0,2.8753006,0.0014645885,8.4912128E8
-125.0,-203.5,65.0,2.741127,0.0013962446,8.0949773E8
-125.0,-203.5,75.0,2.5219195,0.0012845872,7.447623E8
-125.0,-203.5,85.0,2.4019089,0.0012234574,7.0932122E8
-125.0,-203.5,95.0,2.1608295,0.0011006591,6.3812678E8
-125.0,-203.5,105.0,1.1930183,6.0768635E-4,3.52316992E8
-125.0,-203.5,115.0,0.20920198,1.0656096E-4,6.178062E7
-125.0,-203.5,125.0,0,0,0
-125.0,-193.5,-115.0,0,0,0
-125.0,-193.5,-105.0,0,0,0
-125.0,-193.5,-95.0,0,0,0
-125.0,-193.5,-85.0,0,0,0
-125.0,-193.5,-75.0,0,0,0
-125.0,-193.5,-65.0,0,0,0
-125.0,-193.5,-55.0,0,0,0
-125.0,-193.5,-45.0,0,0,0
-125.0,-193.5,-35.0,0,0,0
-125.0,-193.5,-25.0,0,0,0
-125.0,-193.5,-15.0,0,0,0
-125.0,-193.5,-5.0,0,0,0
-125.0,-193.5,5.0,0,0,0
-125.0,-193.5,15.0,0,0,0
-125.0,-193.5,25.0,0,0,0
-125.0,-193.5,35.0,0,0,0
-125.0,-193.5,45.0,0,0,0
-125.0,-193.5,55.0,0,0,0
-125.0,-193.5,65.0,0,0,0
-125.0,-193.5,75.0,0,0,0
-125.0,-193.5,85.0,0,0,0
-125.0,-193.5,95.0,0,0,0
-125.0,-193.5,105.0,0,0,0
-125.0,-193.5,115.0,0,0,0
-125.0,-193.5,125.0,0,0,0
-125.0,-183.5,-115.0,2.5017412,0.0012743089,7.3880326E8
-125.0,-183.5,-105.0,2.7294273,0.0013902852,8.0604262E8
-125.0,-183.5,-95.0,3.0201535,0.001538372,8.9189856E8
-125.0,-183.5,-85.0,2.725569,0.0013883199,8.0490317E8
-125.0,-183.5,-75.0,2.9653487,0.0015104562,8.7571392E8
-125.0,-183.5,-65.0,3.185951,0.0016228241,9.4086125E8
-125.0,-183.5,-55.0,3.0004845,0.0015283532,8.8609005E8
-125.0,-183.5,-45.0,3.3620436,0.0017125201,9.9286413E8
-125.0,-183.5,-35.0,3.1936378,0.0016267395,9.4313126E8
-125.0,-183.5,-25.0,3.1401405,0.0015994897,9.2733267E8
-125.0,-183.5,-15.0,3.4381578,0.0017512904,1.01534182E9
-125.0,-183.5,-5.0,3.5108502,0.0017883177,1.03680902E9
-125.0,-183.5,5.0,3.5876935,0.0018274592,1.05950202E9
-125.0,-183.5,15.0,3.2219565,0.0016411641,9.5149414E8
-125.0,-183.5,25.0,4.0351634,0.0020553863,1.19164685E9
-125.0,-183.5,35.0,3.503321,0.0017844824,1.03458554E9
-125.0,-183.5,45.0,3.3097997,0.0016859088,9.7743565E8
-125.0,-183.5,55.0,3.005212,0.0015307612,8.8748614E8
-125.0,-183.5,65.0,2.9210947,0.0014879146,8.6264499E8
-125.0,-183.5,75.0,2.8591979,0.0014563863,8.4436589E8
-125.0,-183.5,85.0,1.8739331,9.545231E-4,5.5340179E8
-125.0,-183.5,95.0,0.5648275,2.877055E-4,1.668024E8
-125.0,-183.5,105.0,0,0,0
-125.0,-183.5,115.0,0,0,0
-125.0,-183.5,125.0,0,0,0
-125.0,-173.5,-115.0,2.2808936,0.0011618161,6.7358362E8
-125.0,-173.5,-105.0,2.4884803,0.0012675542,7.3488717E8
-125.0,-173.5,-95.0,2.753542,0.0014025684,8.1316403E8
-125.0,-173.5,-85.0,2.4849627,0.0012657625,7.3384838E8
-125.0,-173.5,-75.0,2.7035751,0.0013771169,7.9840806E8
-125.0,-173.5,-65.0,2.9047034,0.0014795653,8.5780435E8
-125.0,-173.5,-55.0,2.7356093,0.001393434,8.0786822E8
-125.0,-173.5,-45.0,3.0652509,0.0015613432,9.0521658E8
-125.0,-173.5,-35.0,2.9117117,0.001483135,8.5987398E8
-125.0,-173.5,-25.0,2.862937,0.0014582907,8.4547008E8
-125.0,-173.5,-15.0,3.134646,0.0015966909,9.2570995E8
-125.0,-173.5,-5.0,3.2009213,0.0016304494,9.4528211E8
-125.0,-173.5,5.0,3.2709808,0.0016661356,9.6597184E8
-125.0,-173.5,15.0,2.9375303,0.0014962862,8.6749862E8
-125.0,-173.5,25.0,3.6789494,0.001873942,1.08645133E9
-125.0,-173.5,35.0,3.1940565,0.0016269528,9.4325491E8
-125.0,-173.5,45.0,3.017619,0.001537081,8.9115008E8
-125.0,-173.5,55.0,2.7399194,0.0013956295,8.0914106E8
-125.0,-173.5,65.0,2.6632278,0.0013565652,7.8649286E8
-125.0,-173.5,75.0,2.606795,0.0013278201,7.6982739E8
-125.0,-173.5,85.0,1.7085071,8.702602E-4,5.04548864E8
-125.0,-173.5,95.0,0.51496595,2.6230759E-4,1.52077504E8
-125.0,-173.5,105.0,0,0,0
-125.0,-173.5,115.0,0,0,0
-125.0,-173.5,125.0,0,0,0
-125.0,-163.5,-115.0,0,0,0
-125.0,-163.5,-105.0,0,0,0
-125.0,-163.5,-95.0,0,0,0
-125.0,-163.5,-85.0,0,0,0
-125.0,-163.5,-75.0,0,0,0
-125.0,-163.5,-65.0,0,0,0
-125.0,-163.5,-55.0,0,0,0
-125.0,-163.5,-45.0,0,0,0
-125.0,-163.5,-35.0,0,0,0
-125.0,-163.5,-25.0,0,0,0
-125.0,-163.5,-15.0,0,0,0
-125.0,-163.5,-5.0,0,0,0
-125.0,-163.5,5.0,0,0,0
-125.0,-163.5,15.0,0,0,0
-125.0,-163.5,25.0,0,0,0
-125.0,-163.5,35.0,0,0,0
-125.0,-163.5,45.0,0,0,0
-125.0,-163.5,55.0,0,0,0
-125.0,-163.5,65.0,0,0,0
-125.0,-163.5,75.0,0,0,0
-125.0,-163.5,85.0,0,0,0
-125.0,-163.5,95.0,0,0,0
-125.0,-163.5,105.0,0,0,0
-125.0,-163.5,115.0,0,0,0
-125.0,-163.5,125.0,0,0,0
-125.0,-153.5,-115.0,2.3036518,0.0011734085,6.8030445E8
-125.0,-153.5,-105.0,2.2623959,0.0011523939,6.681209E8
-125.0,-153.5,-95.0,2.6625829,0.0013562366,7.863024E8
-125.0,-153.5,-85.0,2.6489058,0.00134927,7.822633E8
-125.0,-153.5,-75.0,2.8703427,0.001462063,8.4765709E8
-125.0,-153.5,-65.0,2.9983807,0.0015272816,8.8546874E8
-125.0,-153.5,-55.0,3.4098454,0.0017368688,1.00698067E9
-125.0,-153.5,-45.0,3.3624246,0.0017127142,9.9297658E8
-125.0,-153.5,-35.0,3.6601274,0.0018643547,1.08089293E9
-125.0,-153.5,-25.0,3.346724,0.0017047168,9.8833997E8
-125.0,-153.5,-15.0,3.352818,0.0017078209,9.9013958E8
-125.0,-153.5,-5.0,3.1404762,0.0015996606,9.2743181E8
-125.0,-153.5,5.0,3.3205454,0.0016913823,9.8060902E8
-125.0,-153.5,15.0,3.1612926,0.0016102638,9.3357914E8
-125.0,-153.5,25.0,3.330676,0.0016965425,9.8360077E8
-125.0,-153.5,35.0,2.9531534,0.0015042442,8.7211238E8
-125.0,-153.5,45.0,2.8833852,0.0014687065,8.515088E8
-125.0,-153.5,55.0,3.0796168,0.0015686607,9.0945901E8
-125.0,-153.5,65.0,2.4728382,0.0012595867,7.3026784E8
-125.0,-153.5,75.0,1.1167262,5.6882546E-4,3.29786688E8
-125.0,-153.5,85.0,0,0,0
-125.0,-153.5,95.0,0,0,0
-125.0,-153.5,105.0,0,0,0
-125.0,-153.5,115.0,0,0,0
-125.0,-153.5,125.0,0,0,0
-125.0,-143.5,-115.0,2.1002913,0.0010698228,6.202489E8
-125.0,-143.5,-105.0,2.0626774,0.0010506635,6.0914086E8
-125.0,-143.5,-95.0,2.4275367,0.0012365115,7.168896E8
-125.0,-143.5,-85.0,2.415067,0.0012301598,7.132071E8
-125.0,-143.5,-75.0,2.616956,0.0013329957,7.7282803E8
-125.0,-143.5,-65.0,2.7336912,0.001392457,8.0730176E8
-125.0,-143.5,-55.0,3.1088326,0.0015835424,9.1808691E8
-125.0,-143.5,-45.0,3.0655982,0.00156152,9.053191E8
-125.0,-143.5,-35.0,3.3370206,0.0016997742,9.8547437E8
-125.0,-143.5,-25.0,3.0512836,0.0015542287,9.0109178E8
-125.0,-143.5,-15.0,3.0568397,0.0015570588,9.0273254E8
-125.0,-143.5,-5.0,2.8632429,0.0014584466,8.4556045E8
-125.0,-143.5,5.0,3.027416,0.0015420712,8.9404333E8
-125.0,-143.5,15.0,2.8822215,0.0014681137,8.5116512E8
-125.0,-143.5,25.0,3.0366523,0.001546776,8.9677094E8
-125.0,-143.5,35.0,2.6924562,0.0013714533,7.9512448E8
-125.0,-143.5,45.0,2.6288474,0.0013390528,7.7633971E8
-125.0,-143.5,55.0,2.807756,0.0014301833,8.2917427E8
-125.0,-143.5,65.0,2.2545424,0.0011483935,6.658016E8
-125.0,-143.5,75.0,1.0181444,5.18611E-4,3.00673952E8
-125.0,-143.5,85.0,0,0,0
-125.0,-143.5,95.0,0,0,0
-125.0,-143.5,105.0,0,0,0
-125.0,-143.5,115.0,0,0,0
-125.0,-143.5,125.0,0,0,0
-125.0,-133.5,-115.0,0,0,0
-125.0,-133.5,-105.0,0,0,0
-125.0,-133.5,-95.0,0,0,0
-125.0,-133.5,-85.0,0,0,0
-125.0,-133.5,-75.0,0,0,0
-125.0,-133.5,-65.0,0,0,0
-125.0,-133.5,-55.0,0,0,0
-125.0,-133.5,-45.0,0,0,0
-125.0,-133.5,-35.0,0,0,0
-125.0,-133.5,-25.0,0,0,0
-125.0,-133.5,-15.0,0,0,0
-125.0,-133.5,-5.0,0,0,0
-125.0,-133.5,5.0,0,0,0
-125.0,-133.5,15.0,0,0,0
-125.0,-133.5,25.0,0,0,0
-125.0,-133.5,35.0,0,0,0
-125.0,-133.5,45.0,0,0,0
-125.0,-133.5,55.0,0,0,0
-125.0,-133.5,65.0,0,0,0
-125.0,-133.5,75.0,0,0,0
-125.0,-133.5,85.0,0,0,0
-125.0,-133.5,95.0,0,0,0
-125.0,-133.5,105.0,0,0,0
-125.0,-133.5,115.0,0,0,0
-125.0,-133.5,125.0,0,0,0
-125.0,-123.5,-115.0,2.5143156,0.001280714,7.4251674E8
-125.0,-123.5,-105.0,2.5340748,0.0012907786,7.4835194E8
-125.0,-123.5,-95.0,2.4664338,0.0012563244,7.2837645E8
-125.0,-123.5,-85.0,2.84876,0.0014510694,8.4128339E8
-125.0,-123.5,-75.0,2.9745436,0.0015151397,8.7842925E8
-125.0,-123.5,-65.0,2.7481189,0.0013998061,8.1156256E8
-125.0,-123.5,-55.0,3.172143,0.0016157907,9.3678342E8
-125.0,-123.5,-45.0,3.216332,0.0016382992,9.4983315E8
-125.0,-123.5,-35.0,3.1797643,0.0016196728,9.3903418E8
-125.0,-123.5,-25.0,3.5817075,0.00182441,1.05773427E9
-125.0,-123.5,-15.0,3.582683,0.001824907,1.05802234E9
-125.0,-123.5,-5.0,3.4646413,0.0017647801,1.02316275E9
-125.0,-123.5,5.0,3.4613163,0.0017630866,1.02218086E9
-125.0,-123.5,15.0,3.4355,0.0017499365,1.01455686E9
-125.0,-123.5,25.0,3.2510064,0.0016559613,9.6007309E8
-125.0,-123.5,35.0,3.357675,0.001710295,9.9157402E8
-125.0,-123.5,45.0,3.437909,0.0017511635,1.01526829E9
-125.0,-123.5,55.0,2.1090896,0.0010743045,6.2284717E8
-125.0,-123.5,65.0,0.58447534,2.977135E-4,1.72604704E8
-125.0,-123.5,75.0,0,0,0
-125.0,-123.5,85.0,0,0,0
-125.0,-123.5,95.0,0,0,0
-125.0,-123.5,105.0,0,0,0
-125.0,-123.5,115.0,0,0,0
-125.0,-123.5,125.0,0,0,0
-125.0,-113.5,-115.0,2.2923582,0.0011676558,6.7696922E8
-125.0,-113.5,-105.0,2.310373,0.001176832,6.8228934E8
-125.0,-113.5,-95.0,2.248703,0.0011454192,6.6407725E8
-125.0,-113.5,-85.0,2.5972786,0.0013229727,7.6701696E8
-125.0,-113.5,-75.0,2.7119584,0.001381387,8.0088371E8
-125.0,-113.5,-65.0,2.505522,0.0012762347,7.3991981E8
-125.0,-113.5,-55.0,2.8921142,0.0014731528,8.5408659E8
-125.0,-113.5,-45.0,2.9324024,0.0014936742,8.6598426E8
-125.0,-113.5,-35.0,2.8990629,0.0014766922,8.5613862E8
-125.0,-113.5,-25.0,3.2655234,0.0016633557,9.6436013E8
-125.0,-113.5,-15.0,3.2664127,0.0016638088,9.6462278E8
-125.0,-113.5,-5.0,3.1587913,0.0016089898,9.3284051E8
-125.0,-113.5,5.0,3.15576,0.0016074458,9.3194534E8
-125.0,-113.5,15.0,3.1322224,0.0015954565,9.249943E8
-125.0,-113.5,25.0,2.9640157,0.0015097772,8.7532026E8
-125.0,-113.5,35.0,3.061268,0.0015593144,9.0404032E8
-125.0,-113.5,45.0,3.134419,0.0015965753,9.2564294E8
-125.0,-113.5,55.0,1.9229046,9.794676E-4,5.6786381E8
-125.0,-113.5,65.0,0.5328793,2.714321E-4,1.573676E8
-125.0,-113.5,75.0,0,0,0
-125.0,-113.5,85.0,0,0,0
-125.0,-113.5,95.0,0,0,0
-125.0,-113.5,105.0,0,0,0
-125.0,-113.5,115.0,0,0,0
-125.0,-113.5,125.0,0,0,0
-125.0,-103.5,-115.0,0,0,0
-125.0,-103.5,-105.0,0,0,0
-125.0,-103.5,-95.0,0,0,0
-125.0,-103.5,-85.0,0,0,0
-125.0,-103.5,-75.0,0,0,0
-125.0,-103.5,-65.0,0,0,0
-125.0,-103.5,-55.0,0,0,0
-125.0,-103.5,-45.0,0,0,0
-125.0,-103.5,-35.0,0,0,0
-125.0,-103.5,-25.0,0,0,0
-125.0,-103.5,-15.0,0,0,0
-125.0,-103.5,-5.0,0,0,0
-125.0,-103.5,5.0,0,0,0
-125.0,-103.5,15.0,0,0,0
-125.0,-103.5,25.0,0,0,0
-125.0,-103.5,35.0,0,0,0
-125.0,-103.5,45.0,0,0,0
-125.0,-103.5,55.0,0,0,0
-125.0,-103.5,65.0,0,0,0
-125.0,-103.5,75.0,0,0,0
-125.0,-103.5,85.0,0,0,0
-125.0,-103.5,95.0,0,0,0
-125.0,-103.5,105.0,0,0,0
-125.0,-103.5,115.0,0,0,0
-125.0,-103.5,125.0,0,0,0
-125.0,-93.5,-115.0,2.206193,0.0011237658,6.5152326E8
-125.0,-93.5,-105.0,2.3580117,0.0012010976,6.9635776E8
-125.0,-93.5,-95.0,2.6581686,0.0013539882,7.8499878E8
-125.0,-93.5,-85.0,2.5496552,0.0012987148,7.5295309E8
-125.0,-93.5,-75.0,3.164187,0.0016117381,9.3443392E8
-125.0,-93.5,-65.0,3.0045078,0.0015304026,8.8727814E8
-125.0,-93.5,-55.0,3.0798233,0.0015687658,9.0952E8
-125.0,-93.5,-45.0,3.0782256,0.0015679521,9.0904819E8
-125.0,-93.5,-35.0,3.42288,0.0017435083,1.01083002E9
-125.0,-93.5,-25.0,3.1868534,0.0016232837,9.4112768E8
-125.0,-93.5,-15.0,3.0772612,0.0015674608,9.0876339E8
-125.0,-93.5,-5.0,3.2448092,0.0016528046,9.5824288E8
-125.0,-93.5,5.0,3.3656597,0.0017143621,9.9393197E8
-125.0,-93.5,15.0,3.882742,0.0019777475,1.1466345E9
-125.0,-93.5,25.0,3.9457362,0.0020098349,1.16523763E9
-125.0,-93.5,35.0,3.569964,0.0018184282,1.05426618E9
-125.0,-93.5,45.0,1.8167964,9.254194E-4,5.36528416E8
-125.0,-93.5,55.0,0.24619985,1.2540653E-4,7.2706672E7
-125.0,-93.5,65.0,0,0,0
-125.0,-93.5,75.0,0,0,0
-125.0,-93.5,85.0,0,0,0
-125.0,-93.5,95.0,0,0,0
-125.0,-93.5,105.0,0,0,0
-125.0,-93.5,115.0,0,0,0
-125.0,-93.5,125.0,0,0,0
-125.0,-83.5,-115.0,2.0114357,0.0010245626,5.9400845E8
-125.0,-83.5,-105.0,2.1498525,0.0010950678,6.3488506E8
-125.0,-83.5,-95.0,2.4235122,0.0012344614,7.1570106E8
-125.0,-83.5,-85.0,2.324578,0.0011840676,6.8648429E8
-125.0,-83.5,-75.0,2.8848605,0.001469458,8.5194445E8
-125.0,-83.5,-65.0,2.7392774,0.0013953025,8.0895149E8
-125.0,-83.5,-55.0,2.807944,0.0014302791,8.2922982E8
-125.0,-83.5,-45.0,2.8064876,0.0014295373,8.2879974E8
-125.0,-83.5,-35.0,3.1207166,0.0015895957,9.2159648E8
-125.0,-83.5,-25.0,2.9055262,0.0014799844,8.580473E8
-125.0,-83.5,-15.0,2.8056083,0.0014290893,8.2854003E8
-125.0,-83.5,-5.0,2.9583654,0.0015068991,8.7365165E8
-125.0,-83.5,5.0,3.0685477,0.0015630225,9.0619014E8
-125.0,-83.5,15.0,3.5399833,0.001803157,1.04541242E9
-125.0,-83.5,25.0,3.5974166,0.0018324117,1.06237338E9
-125.0,-83.5,35.0,3.2548163,0.0016579019,9.6119821E8
-125.0,-83.5,45.0,1.6564142,8.437257E-4,4.89165024E8
-125.0,-83.5,55.0,0.22446595,1.14335955E-4,6.6288308E7
-125.0,-83.5,65.0,0,0,0
-125.0,-83.5,75.0,0,0,0
-125.0,-83.5,85.0,0,0,0
-125.0,-83.5,95.0,0,0,0
-125.0,-83.5,105.0,0,0,0
-125.0,-83.5,115.0,0,0,0
-125.0,-83.5,125.0,0,0,0
-125.0,-73.5,-115.0,0,0,0
-125.0,-73.5,-105.0,0,0,0
-125.0,-73.5,-95.0,0,0,0
-125.0,-73.5,-85.0,0,0,0
-125.0,-73.5,-75.0,0,0,0
-125.0,-73.5,-65.0,0,0,0
-125.0,-73.5,-55.0,0,0,0
-125.0,-73.5,-45.0,0,0,0
-125.0,-73.5,-35.0,0,0,0
-125.0,-73.5,-25.0,0,0,0
-125.0,-73.5,-15.0,0,0,0
-125.0,-73.5,-5.0,0,0,0
-125.0,-73.5,5.0,0,0,0
-125.0,-73.5,15.0,0,0,0
-125.0,-73.5,25.0,0,0,0
-125.0,-73.5,35.0,0,0,0
-125.0,-73.5,45.0,0,0,0
-125.0,-73.5,55.0,0,0,0
-125.0,-73.5,65.0,0,0,0
-125.0,-73.5,75.0,0,0,0
-125.0,-73.5,85.0,0,0,0
-125.0,-73.5,95.0,0,0,0
-125.0,-73.5,105.0,0,0,0
-125.0,-73.5,115.0,0,0,0
-125.0,-73.5,125.0,0,0,0
-125.0,-63.5,-115.0,2.39072,0.0012177582,7.0601702E8
-125.0,-63.5,-105.0,2.4351306,0.0012403796,7.1913222E8
-125.0,-63.5,-95.0,2.9440176,0.0014995908,8.6941453E8
-125.0,-63.5,-85.0,3.1720088,0.0016157223,9.3674381E8
-125.0,-63.5,-75.0,3.0283716,0.001542558,8.943255E8
-125.0,-63.5,-65.0,3.1819909,0.0016208069,9.3969171E8
-125.0,-63.5,-55.0,3.321109,0.0016916693,9.8077549E8
-125.0,-63.5,-45.0,3.3261306,0.0016942272,9.8225843E8
-125.0,-63.5,-35.0,3.7344747,0.0019022248,1.10284877E9
-125.0,-63.5,-25.0,3.4113305,0.0017376253,1.00741926E9
-125.0,-63.5,-15.0,3.5383635,0.001802332,1.04493408E9
-125.0,-63.5,-5.0,3.5865943,0.0018268994,1.05917747E9
-125.0,-63.5,5.0,3.5049098,0.0017852917,1.03505472E9
-125.0,-63.5,15.0,3.4340026,0.0017491739,1.01411469E9
-125.0,-63.5,25.0,2.937642,0.0014963433,8.6753165E8
-125.0,-63.5,35.0,1.3894683,7.0775184E-4,4.10331744E8
-125.0,-63.5,45.0,0,0,0
-125.0,-63.5,55.0,0,0,0
-125.0,-63.5,65.0,0,0,0
-125.0,-63.5,75.0,0,0,0
-125.0,-63.5,85.0,0,0,0
-125.0,-63.5,95.0,0,0,0
-125.0,-63.5,105.0,0,0,0
-125.0,-63.5,115.0,0,0,0
-125.0,-63.5,125.0,0,0,0
-125.0,-53.5,-115.0,2.1796732,0.0011102576,6.4369158E8
-125.0,-53.5,-105.0,2.2201636,0.0011308821,6.5564902E8
-125.0,-53.5,-95.0,2.6841273,0.0013672106,7.9266477E8
-125.0,-53.5,-85.0,2.8919919,0.0014730905,8.5405043E8
-125.0,-53.5,-75.0,2.7610345,0.0014063849,8.153767E8
-125.0,-53.5,-65.0,2.9010928,0.0014777262,8.5673811E8
-125.0,-53.5,-55.0,3.02793,0.001542333,8.9419507E8
-125.0,-53.5,-45.0,3.0325081,0.0015446651,8.9554714E8
-125.0,-53.5,-35.0,3.4048047,0.0017343012,1.0054921E9
-125.0,-53.5,-25.0,3.1101868,0.0015842321,9.1848678E8
-125.0,-53.5,-15.0,3.2260056,0.0016432267,9.5268998E8
-125.0,-53.5,-5.0,3.269979,0.0016656253,9.6567597E8
-125.0,-53.5,5.0,3.1955051,0.0016276907,9.4368269E8
-125.0,-53.5,15.0,3.1308575,0.0015947612,9.2459123E8
-125.0,-53.5,25.0,2.6783144,0.0013642499,7.9094816E8
-125.0,-53.5,35.0,1.2668096,6.452733E-4,3.74108704E8
-125.0,-53.5,45.0,0,0,0
-125.0,-53.5,55.0,0,0,0
-125.0,-53.5,65.0,0,0,0
-125.0,-53.5,75.0,0,0,0
-125.0,-53.5,85.0,0,0,0
-125.0,-53.5,95.0,0,0,0
-125.0,-53.5,105.0,0,0,0
-125.0,-53.5,115.0,0,0,0
-125.0,-53.5,125.0,0,0,0
-125.0,-43.5,-115.0,0,0,0
-125.0,-43.5,-105.0,0,0,0
-125.0,-43.5,-95.0,0,0,0
-125.0,-43.5,-85.0,0,0,0
-125.0,-43.5,-75.0,0,0,0
-125.0,-43.5,-65.0,0,0,0
-125.0,-43.5,-55.0,0,0,0
-125.0,-43.5,-45.0,0,0,0
-125.0,-43.5,-35.0,0,0,0
-125.0,-43.5,-25.0,0,0,0
-125.0,-43.5,-15.0,0,0,0
-125.0,-43.5,-5.0,0,0,0
-125.0,-43.5,5.0,0,0,0
-125.0,-43.5,15.0,0,0,0
-125.0,-43.5,25.0,0,0,0
-125.0,-43.5,35.0,0,0,0
-125.0,-43.5,45.0,0,0,0
-125.0,-43.5,55.0,0,0,0
-125.0,-43.5,65.0,0,0,0
-125.0,-43.5,75.0,0,0,0
-125.0,-43.5,85.0,0,0,0
-125.0,-43.5,95.0,0,0,0
-125.0,-43.5,105.0,0,0,0
-125.0,-43.5,115.0,0,0,0
-125.0,-43.5,125.0,0,0,0
-125.0,-33.5,-115.0,2.3931923,0.0012190174,7.0674714E8
-125.0,-33.5,-105.0,2.5513194,0.0012995625,7.5344454E8
-125.0,-33.5,-95.0,2.4170496,0.0012311697,7.1379258E8
-125.0,-33.5,-85.0,2.7348993,0.0013930724,8.0765856E8
-125.0,-33.5,-75.0,2.5973318,0.0013229998,7.670327E8
-125.0,-33.5,-65.0,2.9370768,0.0014960553,8.6736474E8
-125.0,-33.5,-55.0,3.166899,0.0016131195,9.3523482E8
-125.0,-33.5,-45.0,3.391851,0.0017277031,1.00166669E9
-125.0,-33.5,-35.0,3.2510638,0.0016559906,9.6009005E8
-125.0,-33.5,-25.0,3.1368606,0.0015978189,9.2636403E8
-125.0,-33.5,-15.0,3.3020973,0.0016819853,9.7516096E8
-125.0,-33.5,-5.0,3.287078,0.001674335,9.707255E8
-125.0,-33.5,5.0,3.6073549,0.0018374741,1.06530835E9
-125.0,-33.5,15.0,3.2838655,0.0016726987,9.6977683E8
-125.0,-33.5,25.0,1.31719,6.7093555E-4,3.88986848E8
-125.0,-33.5,35.0,0,0,0
-125.0,-33.5,45.0,0,0,0
-125.0,-33.5,55.0,0,0,0
-125.0,-33.5,65.0,0,0,0
-125.0,-33.5,75.0,0,0,0
-125.0,-33.5,85.0,0,0,0
-125.0,-33.5,95.0,0,0,0
-125.0,-33.5,105.0,0,0,0
-125.0,-33.5,115.0,0,0,0
-125.0,-33.5,125.0,0,0,0
-125.0,-23.5,-115.0,2.1819272,0.0011114057,6.4435725E8
-125.0,-23.5,-105.0,2.3260953,0.0011848405,6.8693235E8
-125.0,-23.5,-95.0,2.2036786,0.0011224851,6.507808E8
-125.0,-23.5,-85.0,2.4934692,0.0012700955,7.3636051E8
-125.0,-23.5,-75.0,2.3680458,0.0012062087,6.9932102E8
-125.0,-23.5,-65.0,2.677799,0.0013639873,7.9079597E8
-125.0,-23.5,-55.0,2.887333,0.0014707174,8.5267462E8
-125.0,-23.5,-45.0,3.092427,0.0015751858,9.1324205E8
-125.0,-23.5,-35.0,2.9640682,0.0015098039,8.7533574E8
-125.0,-23.5,-25.0,2.8599465,0.0014567674,8.4458694E8
-125.0,-23.5,-15.0,3.0105963,0.0015335039,8.8907622E8
-125.0,-23.5,-5.0,2.996903,0.0015265289,8.8503232E8
-125.0,-23.5,5.0,3.2889066,0.0016752664,9.712656E8
-125.0,-23.5,15.0,2.993974,0.001525037,8.8416736E8
-125.0,-23.5,25.0,1.2009119,6.1170704E-4,3.54648064E8
-125.0,-23.5,35.0,0,0,0
-125.0,-23.5,45.0,0,0,0
-125.0,-23.5,55.0,0,0,0
-125.0,-23.5,65.0,0,0,0
-125.0,-23.5,75.0,0,0,0
-125.0,-23.5,85.0,0,0,0
-125.0,-23.5,95.0,0,0,0
-125.0,-23.5,105.0,0,0,0
-125.0,-23.5,115.0,0,0,0
-125.0,-23.5,125.0,0,0,0
-125.0,-13.500001,-115.0,0,0,0
-125.0,-13.500001,-105.0,0,0,0
-125.0,-13.500001,-95.0,0,0,0
-125.0,-13.500001,-85.0,0,0,0
-125.0,-13.500001,-75.0,0,0,0
-125.0,-13.500001,-65.0,0,0,0
